683568.104687 247914.468567 440.104280818 -0.0813054603099 0.996689230464 0.0
683568.104687 247914.468567 432.604280818 -0.0813054603099 0.996689230464 0.0
683570.047922 247914.593293 440.104280818 0.99224597189 0.124289707009 0.0
683570.047922 247914.593293 432.604280818 0.99224597189 0.124289707009 0.0
683571.14 247902.177 430.094280818 0.0 0.0 -1.0
683570.773891 247910.8305 430.094280818 0.0 0.0 -1.0
683562.639736 247902.045 430.094280818 0.0 0.0 -1.0
683562.635 247910.671627 430.094280818 0.0 0.0 -1.0
683571.14 247902.177 445.114280818 -0.0 -0.0 1.0
683570.773891 247910.8305 445.114280818 -0.0 -0.0 1.0
683562.639736 247902.045 445.114280818 -0.0 -0.0 1.0
683562.635 247910.671627 445.114280818 -0.0 -0.0 1.0
683494.697361 247899.010103 411.693133387 0.0101794398112 -0.99994818816 0.0
683489.196361 247898.954103 411.693133387 0.0101794398112 -0.99994818816 0.0
683488.677507 247899.162633 411.693133387 -0.999324862478 -0.036739886126 0.0
683488.645893 247899.364982 411.693133387 -0.235687634777 -0.971828862925 0.0
683488.582337 247899.38343 411.693133387 -0.321271862715 -0.946987006367 0.0
683488.520706 247899.407454 411.693133387 -0.404432086015 -0.914568033446 0.0
683488.461453 247899.436903 411.693133387 -0.484733850813 -0.874661702532 0.0
683488.405047 247899.471517 411.693133387 -0.560340276214 -0.82826250359 0.0
683488.351943 247899.510939 411.693133387 -0.630650212215 -0.776067207034 0.0
683488.302556 247899.555003 411.693133387 -0.699413193511 -0.714717555922 0.0
683488.257356 247899.603293 411.693133387 -0.759364642577 -0.650665305363 0.0
683488.216563 247899.655388 411.693133387 -0.813733467357 -0.581238199109 0.0
683488.180573 247899.710893 411.693133387 -0.86272102114 -0.505680175291 0.0
683488.149707 247899.769381 411.693133387 -0.904297874938 -0.426902041905 0.0
683488.124161 247899.830459 411.693133387 -0.938942196099 -0.344074922633 0.0
683488.104145 247899.893495 411.693133387 -0.965467649586 -0.260522969433 0.0
683488.0898 247899.958072 411.693133387 -0.984952453488 -0.172825531588 0.0
683488.081284 247900.024426 411.693133387 -0.996597242729 -0.0824253346055 0.0
683488.0788 247900.09199 411.693133387 -0.999959664095 0.00898165810206 0.0
683488.082449 247900.159538 411.693133387 -0.995110993636 0.0987628996328 0.0
683488.092233 247900.226453 411.693133387 -0.981716661522 0.19034809295 0.0
683488.108095 247900.292183 411.693133387 -0.960501136137 0.278276063432 0.0
683488.129838 247900.356194 411.693133387 -0.931242792069 0.364399316985 0.0
683488.157309 247900.417928 411.693133387 -0.894127433946 0.44781260798 0.0
683488.1903 247900.476968 411.693133387 -0.850009909254 0.526766698045 0.0
683488.228516 247900.532772 411.693133387 -0.798379355474 0.60215480132 0.0
683488.27165 247900.584826 411.693133387 -0.74000786331 0.672598217541 0.0
683488.319343 247900.632722 411.693133387 -0.675724638627 0.737154130933 0.0
683488.371243 247900.676107 411.693133387 -0.605727715944 0.795672001605 0.0
683488.426841 247900.714574 411.693133387 -0.530942330445 0.847407954731 0.0
683488.48568 247900.74782 411.693133387 -0.451996565653 0.892019677271 0.0
683489.190759 247900.998343 411.693133387 -0.329080233211 0.944301964474 0.0
683490.551127 247901.431308 411.693133387 -0.277255165968 0.960796322299 0.0
683491.933056 247901.789545 411.693133387 -0.224429759845 0.974490268241 0.0
683493.33249 247902.071903 411.693133387 -0.170983474221 0.985273896713 0.0
683494.745179 247902.277631 411.693133387 -0.117125753351 0.993117091738 0.0
683496.166972 247902.40613 411.693133387 -0.0628318101548 0.998024129785 0.0
683497.612728 247902.4563 411.693133387 -0.00723234400363 0.999973846258 0.0
683499.078088 247902.425838 411.693133387 0.0487806557751 0.998809515184 0.0
683500.539445 247902.313495 411.693133387 0.104461022065 0.994528981412 0.0
683501.9922 247902.119621 411.693133387 0.159993899415 0.987118003154 0.0
683503.431849 247901.844766 411.693133387 0.214921656447 0.976631292551 0.0
683504.853892 247901.489881 411.693133387 0.269156653589 0.963096410454 0.0
683505.590269 247901.281715 411.693133387 0.33693478452 0.941527987359 0.0
683505.649793 247901.257379 411.693133387 0.419258047606 0.907867110054 0.0
683505.706894 247901.227814 411.693133387 0.499358756456 0.866395309516 0.0
683505.761135 247901.193292 411.693133387 0.573462340424 0.819231923276 0.0
683505.812097 247901.154095 411.693133387 0.644669525373 0.764461381009 0.0
683505.859352 247901.110489 411.693133387 0.710249425928 0.703950106875 0.0
683505.902552 247901.062829 411.693133387 0.770154168327 0.637857787448 0.0
683505.941337 247901.01152 411.693133387 0.823720132602 0.566996598884 0.0
683505.975409 247900.956964 411.693133387 0.870943898781 0.491382463236 0.0
683506.004508 247900.899629 411.693133387 0.910797706341 0.412852925537 0.0
683506.028348 247900.839875 411.693133387 0.94483618688 0.327543248996 0.0
683506.046748 247900.77824 411.693133387 0.969770951869 0.244017009471 0.0
683506.059628 247900.71521 411.693133387 0.987762965329 0.155962573473 0.0
683506.066827 247900.651328 411.693133387 0.997700677011 0.0677743247209 0.0
683506.068448 247900.588568 411.693133387 0.999834751713 -0.0181788136675 0.0
683506.064747 247900.527376 411.693133387 0.994738345903 -0.10244814879 0.0
683506.055874 247900.466684 411.693133387 0.982439584819 -0.186580980225 0.0
683506.041881 247900.406957 411.693133387 0.963066886457 -0.269262274021 0.0
683506.022922 247900.348662 411.693133387 0.937209286425 -0.34876747761 0.0
683505.999088 247900.292171 411.693133387 0.903805129409 -0.427944258116 0.0
683505.970488 247900.237912 411.693133387 0.863838806469 -0.503768316232 0.0
683505.937381 247900.186299 411.693133387 0.818065601208 -0.57512491871 0.0
683505.900071 247900.137685 411.693133387 0.767136026705 -0.641484463203 0.0
683505.858746 247900.092354 411.693133387 0.709577730948 -0.70462716648 0.0
683505.813718 247900.050724 411.693133387 0.646831706481 -0.762632771057 0.0
683505.76535 247900.013104 411.693133387 0.579987073748 -0.814625677404 0.0
683505.713951 247899.979649 411.693133387 0.51011907495 -0.860103789884 0.0
683505.659883 247899.950687 411.693133387 0.433268614547 -0.901264837686 0.0
683505.603565 247899.926457 411.693133387 0.356544403589 -0.934278378359 0.0
683505.545358 247899.907038 411.693133387 0.275811610544 -0.961211712106 0.0
683505.485786 247899.892639 411.693133387 0.193570177432 -0.981086431671 0.0
683505.42519 247899.88336 411.693133387 0.108981545675 -0.994043773031 0.0
683505.416487 247899.64551 411.693133387 0.998700994655 0.0509541291263 0.0
683502.558574 247899.225516 411.693133387 0.0574025718496 -0.998351112958 0.0
683493.0885 247900.70437 410.183133387 -0.0 -0.0 -1.0
683502.07375 247900.753113 410.183133387 -0.0 -0.0 -1.0
683493.0885 247900.70437 413.203133387 0.0 0.0 1.0
683502.07375 247900.753113 413.203133387 0.0 0.0 1.0
683551.400976 247936.97012 430.5 0.647594863518 0.761984837608 0.0
683552.260446 247936.866944 430.5 -0.105390109373 0.994430955294 0.0
683553.12047 247934.501775 430.5 0.996994961266 0.0774664263362 0.0
683553.150234 247932.054027 430.5 0.0733802300501 -0.99730403681 0.0
683553.251972 247928.804743 430.5 0.997237522073 0.0742786952612 0.0
683553.632766 247925.575973 430.5 -0.0733802300501 0.99730403681 0.0
683554.00746 247923.17689 430.5 0.996033110658 0.0889833831262 0.0
683554.266185 247920.789467 430.5 -0.0815457253582 0.996669601561 0.0
683554.540964 247918.318845 430.5 0.996427728662 0.0844498759776 0.0
683554.770962 247915.612872 430.5 0.996193716934 0.0871669567068 0.0
683554.794968 247915.335297 430.5 0.996815281685 0.0797451829249 0.0
683554.731541 247915.271828 430.5 0.254089827308 -0.967180624113 0.0
683553.789056 247915.070714 430.5 0.205591537922 -0.978637889893 0.0
683551.761034 247914.585326 430.5 0.253349982989 -0.967374687554 0.0
683549.87399 247914.1347 430.5 0.199040080276 -0.979991350188 0.0
683548.697043 247913.893211 430.5 0.204312873855 -0.97890563875 0.0
683547.841936 247918.794585 430.5 -0.996679928032 -0.0814194145049 0.0
683547.027742 247928.761385 430.5 -0.996679928032 -0.0814194145049 0.0
683546.500339 247935.217485 430.5 -0.996679928032 -0.0814194145049 0.0
683546.617563 247936.722456 430.5 -0.0936781412599 0.995602534072 0.0
683549.016573 247936.945957 430.5 -0.0926656760948 0.995697279535 0.0
683551.115047 247918.812 428.99 0.0 0.0 -1.0
683550.282934 247928.812 428.99 0.0 0.0 -1.0
683549.777018 247935.475 428.99 0.0 0.0 -1.0
683551.115047 247918.812 432.01 -0.0 -0.0 1.0
683550.282934 247928.812 432.01 -0.0 -0.0 1.0
683549.777018 247935.475 432.01 -0.0 -0.0 1.0
683566.273757 247933.030563 439.382961651 0.996846211097 0.0793576172863 0.0
683566.273757 247933.030563 431.882961651 0.996846211097 0.0793576172863 0.0
683566.912557 247925.006313 439.382961651 0.996846211097 0.0793576172863 0.0
683566.912557 247925.006313 431.882961651 0.996846211097 0.0793576172863 0.0
683567.158268 247921.920047 439.382961651 0.996815279813 0.0797452063269 0.0
683567.158268 247921.920047 431.882961651 0.996815279813 0.0797452063269 0.0
683562.17076 247921.44016 439.382961651 0.084575076416 -0.996417109673 0.0
683562.17076 247921.44016 431.882961651 0.084575076416 -0.996417109673 0.0
683555.75576 247920.89566 439.382961651 0.084575076416 -0.996417109673 0.0
683555.75576 247920.89566 431.882961651 0.084575076416 -0.996417109673 0.0
683554.267815 247920.769533 439.382961651 0.0815457253582 -0.996669601561 0.0
683554.267815 247920.769533 431.882961651 0.0815457253582 -0.996669601561 0.0
683554.19879 247920.810408 439.382961651 -0.996015972819 -0.0891750070937 0.0
683554.19879 247920.810408 431.882961651 -0.996015972819 -0.0891750070937 0.0
683553.98654 247923.18641 439.382961651 -0.996034000905 -0.0889734176154 0.0
683553.98654 247923.18641 431.882961651 -0.996034000905 -0.0889734176154 0.0
683553.77529 247925.551104 439.382961651 -0.995974435995 -0.089637731148 0.0
683553.77529 247925.551104 431.882961651 -0.995974435995 -0.089637731148 0.0
683553.634234 247925.556027 439.382961651 0.0733802300501 -0.99730403681 0.0
683553.634234 247925.556027 431.882961651 0.0733802300501 -0.99730403681 0.0
683553.356928 247927.126407 439.382961651 -0.997237556774 -0.0742782293803 0.0
683553.356928 247927.126407 431.882961651 -0.997237556774 -0.0742782293803 0.0
683553.114928 247930.375407 439.382961651 -0.997237489539 -0.0742791320532 0.0
683553.114928 247930.375407 431.882961651 -0.997237489539 -0.0742791320532 0.0
683553.086216 247932.069373 439.382961651 -0.073406941122 0.997302071087 0.0
683553.086216 247932.069373 431.882961651 -0.073406941122 0.997302071087 0.0
683553.235717 247932.080373 439.382961651 -0.0733430990483 0.997306768162 0.0
683553.235717 247932.080373 431.882961651 -0.0733430990483 0.997306768162 0.0
683553.10443 247934.449825 439.382961651 -0.996994440196 -0.0774731322341 0.0
683553.10443 247934.449825 431.882961651 -0.996994440196 -0.0774731322341 0.0
683552.91593 247936.875828 439.382961651 -0.997019471325 -0.0771503324637 0.0
683552.91593 247936.875828 431.882961651 -0.997019471325 -0.0771503324637 0.0
683557.903628 247937.355346 439.382961651 -0.0836761598415 0.996493000615 0.0
683557.903628 247937.355346 431.882961651 -0.0836761598415 0.996493000615 0.0
683564.376128 247937.898846 439.382961651 -0.0836761598415 0.996493000615 0.0
683564.376128 247937.898846 431.882961651 -0.0836761598415 0.996493000615 0.0
683562.152 247925.899604 429.372961651 0.0 0.0 -1.0
683561.797644 247934.3945 429.372961651 0.0 0.0 -1.0
683555.123596 247925.775 429.372961651 0.0 0.0 -1.0
683555.037 247934.028598 429.372961651 0.0 0.0 -1.0
683562.152 247925.899604 444.392961651 -0.0 -0.0 1.0
683561.797644 247934.3945 444.392961651 -0.0 -0.0 1.0
683555.123596 247925.775 444.392961651 -0.0 -0.0 1.0
683555.037 247934.028598 444.392961651 -0.0 -0.0 1.0
683527.655704 247864.977414 428.461519806 0.970437554273 0.241352342556 0.0
683527.655704 247864.977414 418.461519806 0.970437554273 0.241352342556 0.0
683527.655704 247864.977414 412.961519806 0.970437554273 0.241352342556 0.0
683528.491201 247864.86144 428.461519806 -0.329931294659 0.944004947447 0.0
683528.491201 247864.86144 418.461519806 -0.329931294659 0.944004947447 0.0
683528.491201 247864.86144 412.961519806 -0.329931294659 0.944004947447 0.0
683529.767623 247863.979595 428.461519806 0.912303109473 0.409515611968 0.0
683529.767623 247863.979595 418.461519806 0.912303109473 0.409515611968 0.0
683529.767623 247863.979595 412.961519806 0.912303109473 0.409515611968 0.0
683530.703907 247863.041624 428.461519806 -0.409325035154 0.912388631887 0.0
683530.703907 247863.041624 418.461519806 -0.409325035154 0.912388631887 0.0
683530.703907 247863.041624 412.961519806 -0.409325035154 0.912388631887 0.0
683533.203622 247858.672597 428.461519806 0.912200119479 0.409744971931 0.0
683533.203622 247858.672597 418.461519806 0.912200119479 0.409744971931 0.0
683533.203622 247858.672597 412.961519806 0.912200119479 0.409744971931 0.0
683534.792645 247853.891899 428.461519806 0.414481700375 -0.910057646556 0.0
683534.792645 247853.891899 418.461519806 0.414481700375 -0.910057646556 0.0
683534.792645 247853.891899 412.961519806 0.414481700375 -0.910057646556 0.0
683536.401174 247849.14132 428.461519806 0.911359175795 0.411612017188 0.0
683536.401174 247849.14132 418.461519806 0.911359175795 0.411612017188 0.0
683536.401174 247849.14132 412.961519806 0.911359175795 0.411612017188 0.0
683539.453174 247842.38382 428.461519806 0.911359175795 0.411612017188 0.0
683539.453174 247842.38382 418.461519806 0.911359175795 0.411612017188 0.0
683539.453174 247842.38382 412.961519806 0.911359175795 0.411612017188 0.0
683540.40102 247840.151844 428.461519806 0.401990073093 -0.915644025336 0.0
683540.40102 247840.151844 418.461519806 0.401990073093 -0.915644025336 0.0
683540.40102 247840.151844 412.961519806 0.401990073093 -0.915644025336 0.0
683535.779695 247838.128668 428.461519806 0.401034227717 -0.91606306999 0.0
683535.779695 247838.128668 418.461519806 0.401034227717 -0.91606306999 0.0
683535.779695 247838.128668 412.961519806 0.401034227717 -0.91606306999 0.0
683528.752195 247835.052168 428.461519806 0.401034227717 -0.91606306999 0.0
683528.752195 247835.052168 418.461519806 0.401034227717 -0.91606306999 0.0
683528.752195 247835.052168 412.961519806 0.401034227717 -0.91606306999 0.0
683525.977478 247838.979532 428.461519806 -0.998031894707 -0.0627083499034 0.0
683525.977478 247838.979532 418.461519806 -0.998031894707 -0.0627083499034 0.0
683525.977478 247838.979532 412.961519806 -0.998031894707 -0.0627083499034 0.0
683525.427478 247847.733032 428.461519806 -0.998031894707 -0.0627083499034 0.0
683525.427478 247847.733032 418.461519806 -0.998031894707 -0.0627083499034 0.0
683525.427478 247847.733032 412.961519806 -0.998031894707 -0.0627083499034 0.0
683524.709128 247851.45602 428.461519806 0.0628198429075 -0.998024883125 0.0
683524.709128 247851.45602 418.461519806 0.0628198429075 -0.998024883125 0.0
683524.709128 247851.45602 412.961519806 0.0628198429075 -0.998024883125 0.0
683523.947519 247855.660389 428.461519806 -0.998134413185 -0.0610548377717 0.0
683523.947519 247855.660389 418.461519806 -0.998134413185 -0.0610548377717 0.0
683523.947519 247855.660389 412.961519806 -0.998134413185 -0.0610548377717 0.0
683524.182906 247860.115123 428.461519806 -0.409431631478 0.912340802083 0.0
683524.182906 247860.115123 418.461519806 -0.409431631478 0.912340802083 0.0
683524.182906 247860.115123 412.961519806 -0.409431631478 0.912340802083 0.0
683524.568519 247861.890385 428.461519806 -0.998106756763 -0.0615053014271 0.0
683524.568519 247861.890385 418.461519806 -0.998106756763 -0.0615053014271 0.0
683524.568519 247861.890385 412.961519806 -0.998106756763 -0.0615053014271 0.0
683525.20374 247863.716454 428.461519806 -0.325990683469 0.945372981575 0.0
683525.20374 247863.716454 418.461519806 -0.325990683469 0.945372981575 0.0
683525.20374 247863.716454 412.961519806 -0.325990683469 0.945372981575 0.0
683525.800808 247864.432536 428.461519806 -0.969180839612 -0.246350360523 0.0
683525.800808 247864.432536 418.461519806 -0.969180839612 -0.246350360523 0.0
683525.800808 247864.432536 412.961519806 -0.969180839612 -0.246350360523 0.0
683526.61716 247865.146722 428.461519806 -0.234044695217 0.972225838291 0.0
683526.61716 247865.146722 418.461519806 -0.234044695217 0.972225838291 0.0
683526.61716 247865.146722 412.961519806 -0.234044695217 0.972225838291 0.0
683535.438 247839.895548 412.451519806 0.0 0.0 -1.0
683534.577388 247848.99 412.451519806 0.0 0.0 -1.0
683532.8405 247858.6095 412.451519806 0.0 0.0 -1.0
683528.05534 247838.99 412.451519806 0.0 0.0 -1.0
683527.248857 247848.99 412.451519806 0.0 0.0 -1.0
683527.0685 247858.99 412.451519806 0.0 0.0 -1.0
683527.720496 247864.6755 412.451519806 0.0 0.0 -1.0
683535.438 247839.895548 433.471519806 -0.0 -0.0 1.0
683534.577388 247848.99 433.471519806 -0.0 -0.0 1.0
683532.8405 247858.6095 433.471519806 -0.0 -0.0 1.0
683528.05534 247838.99 433.471519806 -0.0 -0.0 1.0
683527.248857 247848.99 433.471519806 -0.0 -0.0 1.0
683527.0685 247858.99 433.471519806 -0.0 -0.0 1.0
683527.720496 247864.6755 433.471519806 -0.0 -0.0 1.0
683607.422378 247836.438335 444.957132681 0.43283208559 -0.901474561862 0.0
683607.422378 247836.438335 437.457132681 0.43283208559 -0.901474561862 0.0
683605.040878 247837.671953 444.957132681 -0.912223415806 -0.409693104233 0.0
683605.040878 247837.671953 437.457132681 -0.912223415806 -0.409693104233 0.0
683603.158878 247841.862453 444.957132681 -0.912225827846 -0.409687733537 0.0
683603.158878 247841.862453 437.457132681 -0.912225827846 -0.409687733537 0.0
683602.96601 247844.472669 444.957132681 -0.399036537739 0.916935025806 0.0
683602.96601 247844.472669 437.457132681 -0.399036537739 0.916935025806 0.0
683603.753979 247844.8495 444.957132681 -0.912102960981 -0.409961203738 0.0
683603.753979 247844.8495 437.457132681 -0.912102960981 -0.409961203738 0.0
683601.68693 247849.44746 444.957132681 -0.912072113377 -0.410029828184 0.0
683601.68693 247849.44746 437.457132681 -0.912072113377 -0.410029828184 0.0
683597.586632 247858.568181 444.957132681 -0.912072113377 -0.410029828184 0.0
683597.586632 247858.568181 437.457132681 -0.912072113377 -0.410029828184 0.0
683595.507181 247863.193721 444.957132681 -0.912072113377 -0.410029828184 0.0
683595.507181 247863.193721 437.457132681 -0.912072113377 -0.410029828184 0.0
683595.616789 247863.326466 444.957132681 -0.376051337004 0.926598830097 0.0
683595.616789 247863.326466 437.457132681 -0.376051337004 0.926598830097 0.0
683600.00699 247865.108116 444.957132681 -0.376038069817 0.926604214349 0.0
683600.00699 247865.108116 437.457132681 -0.376038069817 0.926604214349 0.0
683604.508439 247866.934916 444.957132681 -0.37605213129 0.926598507743 0.0
683604.508439 247866.934916 437.457132681 -0.37605213129 0.926598507743 0.0
683605.511199 247867.345749 444.957132681 -0.380105295264 0.924943222318 0.0
683605.511199 247867.345749 437.457132681 -0.380105295264 0.924943222318 0.0
683607.597135 247868.213723 444.957132681 -0.386488505748 0.922294223621 0.0
683607.597135 247868.213723 437.457132681 -0.386488505748 0.922294223621 0.0
683610.957278 247864.190859 444.957132681 0.914835830042 0.40382595765 0.0
683610.957278 247864.190859 437.457132681 0.914835830042 0.40382595765 0.0
683614.995538 247855.042501 444.957132681 0.914835830042 0.40382595765 0.0
683614.995538 247855.042501 437.457132681 0.914835830042 0.40382595765 0.0
683618.569408 247846.94618 444.957132681 0.914835830042 0.40382595765 0.0
683618.569408 247846.94618 437.457132681 0.914835830042 0.40382595765 0.0
683618.952709 247842.698964 444.957132681 0.520932370506 -0.853597952996 0.0
683618.952709 247842.698964 437.457132681 0.520932370506 -0.853597952996 0.0
683617.500101 247841.817399 444.957132681 0.510050553231 -0.86014442575 0.0
683617.500101 247841.817399 437.457132681 0.510050553231 -0.86014442575 0.0
683616.802607 247841.403402 444.957132681 0.510659145209 -0.859783250252 0.0
683616.802607 247841.403402 437.457132681 0.510659145209 -0.859783250252 0.0
683616.368087 247841.145391 444.957132681 0.508729290025 -0.860926541274 0.0
683616.368087 247841.145391 437.457132681 0.508729290025 -0.860926541274 0.0
683616.42855 247840.978254 444.957132681 0.905002836747 0.425405530618 0.0
683616.42855 247840.978254 437.457132681 0.905002836747 0.425405530618 0.0
683612.709378 247838.976835 444.957132681 0.432834214928 -0.901473539483 0.0
683612.709378 247838.976835 437.457132681 0.432834214928 -0.901473539483 0.0
683603.8235 247841.216512 434.947132681 -0.0 -0.0 -1.0
683602.180262 247850.73 434.947132681 -0.0 -0.0 -1.0
683600.487 247860.73 434.947132681 -0.0 -0.0 -1.0
683603.526491 247866.527497 434.947132681 -0.0 -0.0 -1.0
683610.487 247840.73 434.947132681 -0.0 -0.0 -1.0
683610.487 247850.73 434.947132681 -0.0 -0.0 -1.0
683610.084066 247860.73 434.947132681 -0.0 -0.0 -1.0
683607.876971 247867.2455 434.947132681 -0.0 -0.0 -1.0
683617.801 247843.025789 434.947132681 -0.0 -0.0 -1.0
683617.291161 247849.817184 434.947132681 -0.0 -0.0 -1.0
683603.8235 247841.216512 449.967132681 0.0 0.0 1.0
683602.180262 247850.73 449.967132681 0.0 0.0 1.0
683600.487 247860.73 449.967132681 0.0 0.0 1.0
683603.526491 247866.527497 449.967132681 0.0 0.0 1.0
683610.487 247840.73 449.967132681 0.0 0.0 1.0
683610.487 247850.73 449.967132681 0.0 0.0 1.0
683610.084066 247860.73 449.967132681 0.0 0.0 1.0
683607.876971 247867.2455 449.967132681 0.0 0.0 1.0
683617.801 247843.025789 449.967132681 0.0 0.0 1.0
683617.291161 247849.817184 449.967132681 0.0 0.0 1.0
683493.834758 247859.253686 423.202478261 0.97581829207 0.218583304171 0.0
683493.834758 247859.253686 414.202478261 0.97581829207 0.218583304171 0.0
683493.991617 247859.220404 423.202478261 -0.138269389332 0.990394656677 0.0
683493.991617 247859.220404 414.202478261 -0.138269389332 0.990394656677 0.0
683494.229367 247858.793124 423.202478261 0.986724875332 0.162400801728 0.0
683494.229367 247858.793124 414.202478261 0.986724875332 0.162400801728 0.0
683493.860997 247858.275613 423.202478261 0.149737660213 -0.98872576234 0.0
683493.860997 247858.275613 414.202478261 0.149737660213 -0.98872576234 0.0
683494.252952 247853.288681 423.202478261 0.98659017042 0.163217142578 0.0
683494.252952 247853.288681 414.202478261 0.98659017042 0.163217142578 0.0
683495.126452 247848.008681 423.202478261 0.98659017042 0.163217142578 0.0
683495.126452 247848.008681 414.202478261 0.98659017042 0.163217142578 0.0
683494.21995 247847.60701 423.202478261 0.0450041195363 -0.998986801327 0.0
683494.21995 247847.60701 414.202478261 0.0450041195363 -0.998986801327 0.0
683491.853717 247847.604004 423.202478261 -0.0283373039094 -0.99959841797 0.0
683491.853717 247847.604004 414.202478261 -0.0283373039094 -0.99959841797 0.0
683489.170267 247847.546029 423.202478261 0.0767264336367 -0.997052182376 0.0
683489.170267 247847.546029 414.202478261 0.0767264336367 -0.997052182376 0.0
683485.451193 247847.154071 423.202478261 0.119337288845 -0.992853771454 0.0
683485.451193 247847.154071 414.202478261 0.119337288845 -0.992853771454 0.0
683483.014999 247846.810167 423.202478261 0.999861139997 0.0166643549199 0.0
683483.014999 247846.810167 414.202478261 0.999861139997 0.0166643549199 0.0
683481.090977 247846.552048 423.202478261 0.0976521261455 -0.995220609844 0.0
683481.090977 247846.552048 414.202478261 0.0976521261455 -0.995220609844 0.0
683479.019257 247851.371615 423.202478261 -0.999580875273 -0.0289495041172 0.0
683479.019257 247851.371615 414.202478261 -0.999580875273 -0.0289495041172 0.0
683478.869757 247856.533615 423.202478261 -0.999580875273 -0.0289495041172 0.0
683478.869757 247856.533615 414.202478261 -0.999580875273 -0.0289495041172 0.0
683483.209331 247857.44186 423.202478261 -0.166905916969 0.985972826644 0.0
683483.209331 247857.44186 414.202478261 -0.166905916969 0.985972826644 0.0
683490.444752 247858.540422 423.202478261 -0.124750798189 0.992188106334 0.0
683490.444752 247858.540422 414.202478261 -0.124750798189 0.992188106334 0.0
683493.315074 247859.057789 423.202478261 -0.992645877947 -0.12105437206 0.0
683493.315074 247859.057789 414.202478261 -0.992645877947 -0.12105437206 0.0
683493.55623 247859.278342 423.202478261 -0.177002269453 0.984210443253 0.0
683493.55623 247859.278342 414.202478261 -0.177002269453 0.984210443253 0.0
683490.174 247851.752413 410.192478261 0.0 0.0 -1.0
683489.733 247857.844 410.192478261 0.0 0.0 -1.0
683482.029192 247851.374 410.192478261 0.0 0.0 -1.0
683482.0245 247857.069149 410.192478261 0.0 0.0 -1.0
683490.174 247851.752413 428.212478261 -0.0 -0.0 1.0
683489.733 247857.844 428.212478261 -0.0 -0.0 1.0
683482.029192 247851.374 428.212478261 -0.0 -0.0 1.0
683482.0245 247857.069149 428.212478261 -0.0 -0.0 1.0
683491.126237 247870.36728 420.460181056 0.973659078179 0.228008770621 0.0
683491.126237 247870.36728 412.960181056 0.973659078179 0.228008770621 0.0
683491.597771 247868.242126 420.460181056 0.977142691379 0.212584478937 0.0
683491.597771 247868.242126 412.960181056 0.977142691379 0.212584478937 0.0
683492.580834 247863.198316 420.460181056 0.983376733626 0.181576980269 0.0
683492.580834 247863.198316 412.960181056 0.983376733626 0.181576980269 0.0
683493.454651 247859.780828 420.460181056 -0.184895211376 0.982758241283 0.0
683493.454651 247859.780828 412.960181056 -0.184895211376 0.982758241283 0.0
683493.765769 247859.567636 420.460181056 0.976912686406 0.213638955108 0.0
683493.765769 247859.567636 412.960181056 0.976912686406 0.213638955108 0.0
683493.55977 247859.258658 420.460181056 0.177002269453 -0.984210443253 0.0
683493.55977 247859.258658 412.960181056 0.177002269453 -0.984210443253 0.0
683493.334926 247859.060211 420.460181056 0.992645877947 0.12105437206 0.0
683493.334926 247859.060211 412.960181056 0.992645877947 0.12105437206 0.0
683490.447248 247858.520578 420.460181056 0.124750798189 -0.992188106334 0.0
683490.447248 247858.520578 412.960181056 0.124750798189 -0.992188106334 0.0
683483.212669 247857.42214 420.460181056 0.166905916969 -0.985972826644 0.0
683483.212669 247857.42214 412.960181056 0.166905916969 -0.985972826644 0.0
683478.274705 247859.567486 420.460181056 -0.979503583852 -0.201426734125 0.0
683478.274705 247859.567486 412.960181056 -0.979503583852 -0.201426734125 0.0
683477.445019 247866.28888 420.460181056 -0.998077223344 -0.0619827092164 0.0
683477.445019 247866.28888 412.960181056 -0.998077223344 -0.0619827092164 0.0
683479.975918 247870.448441 420.460181056 -0.108198427979 0.994129317636 0.0
683479.975918 247870.448441 412.960181056 -0.108198427979 0.994129317636 0.0
683483.358476 247870.812947 420.460181056 -0.102434980533 0.994739702014 0.0
683483.358476 247870.812947 412.960181056 -0.102434980533 0.994739702014 0.0
683484.031463 247870.399862 420.460181056 0.996276448283 0.0862162316352 0.0
683484.031463 247870.399862 412.960181056 0.996276448283 0.0862162316352 0.0
683487.252061 247870.404896 420.460181056 -0.14387359477 0.989596073521 0.0
683487.252061 247870.404896 412.960181056 -0.14387359477 0.989596073521 0.0
683490.714918 247870.898441 420.460181056 -0.108216811985 0.994127316597 0.0
683490.714918 247870.898441 412.960181056 -0.108216811985 0.994127316597 0.0
683482.322816 247861.698 410.450181056 -0.0 -0.0 -1.0
683482.216 247868.7825 410.450181056 -0.0 -0.0 -1.0
683490.5135 247862.403984 410.450181056 -0.0 -0.0 -1.0
683489.569737 247868.808 410.450181056 -0.0 -0.0 -1.0
683482.322816 247861.698 425.470181056 0.0 0.0 1.0
683482.216 247868.7825 425.470181056 0.0 0.0 1.0
683490.5135 247862.403984 425.470181056 0.0 0.0 1.0
683489.569737 247868.808 425.470181056 0.0 0.0 1.0
683586.481749 247882.047811 437.8795 0.89990460026 0.436086815246 0.0
683586.481749 247882.047811 430.3795 0.89990460026 0.436086815246 0.0
683586.979822 247881.417091 437.8795 -0.43779973251 0.899072518885 0.0
683586.979822 247881.417091 430.3795 -0.43779973251 0.899072518885 0.0
683587.109935 247881.167488 437.8795 0.98849840692 -0.151231278235 0.0
683587.109935 247881.167488 430.3795 0.98849840692 -0.151231278235 0.0
683589.240529 247876.354487 437.8795 0.899914660368 0.436066054693 0.0
683589.240529 247876.354487 430.3795 0.899914660368 0.436066054693 0.0
683591.638829 247871.405087 437.8795 0.899914660368 0.436066054693 0.0
683591.638829 247871.405087 430.3795 0.899914660368 0.436066054693 0.0
683591.939399 247870.784811 437.8795 0.899902017636 0.436092144683 0.0
683591.939399 247870.784811 430.3795 0.899902017636 0.436092144683 0.0
683591.927311 247870.557977 437.8795 0.431100709315 -0.902303817142 0.0
683591.927311 247870.557977 430.3795 0.431100709315 -0.902303817142 0.0
683588.939307 247869.131875 437.8795 0.430720362726 -0.902485439845 0.0
683588.939307 247869.131875 430.3795 0.430720362726 -0.902485439845 0.0
683586.002712 247867.730328 437.8795 0.431248744045 -0.902233074521 0.0
683586.002712 247867.730328 430.3795 0.431248744045 -0.902233074521 0.0
683581.451686 247865.55826 437.8795 0.430723035956 -0.902484164015 0.0
683581.451686 247865.55826 430.3795 0.430723035956 -0.902484164015 0.0
683572.426845 247861.25103 437.8795 0.430723035956 -0.902484164015 0.0
683572.426845 247861.25103 430.3795 0.430723035956 -0.902484164015 0.0
683567.757866 247859.022695 437.8795 0.430723035956 -0.902484164015 0.0
683567.757866 247859.022695 430.3795 0.430723035956 -0.902484164015 0.0
683565.754494 247862.751653 437.8795 -0.900598037804 -0.434652935459 0.0
683565.754494 247862.751653 430.3795 -0.900598037804 -0.434652935459 0.0
683563.893838 247866.52649 437.8795 0.433815625002 -0.90100166676 0.0
683563.893838 247866.52649 430.3795 0.433815625002 -0.90100166676 0.0
683562.789952 247868.742742 437.8795 -0.904800319337 -0.425836097728 0.0
683562.789952 247868.742742 430.3795 -0.904800319337 -0.425836097728 0.0
683562.020192 247871.118525 437.8795 -0.430759905109 0.902466566777 0.0
683562.020192 247871.118525 430.3795 -0.430759905109 0.902466566777 0.0
683562.319984 247871.222892 437.8795 0.898384368745 0.439210115998 0.0
683562.319984 247871.222892 430.3795 0.898384368745 0.439210115998 0.0
683564.836199 247872.405028 437.8795 -0.430142279639 0.902761108637 0.0
683564.836199 247872.405028 430.3795 -0.430142279639 0.902761108637 0.0
683567.306977 247873.681689 437.8795 -0.902303809878 -0.431100724518 0.0
683567.306977 247873.681689 430.3795 -0.902303809878 -0.431100724518 0.0
683569.673999 247874.931078 437.8795 -0.430138262356 0.902763022757 0.0
683569.673999 247874.931078 430.3795 -0.430138262356 0.902763022757 0.0
683576.593097 247878.227855 437.8795 -0.430145434104 0.902759605609 0.0
683576.593097 247878.227855 430.3795 -0.430145434104 0.902759605609 0.0
683583.614297 247881.573305 437.8795 -0.430145434104 0.902759605609 0.0
683583.614297 247881.573305 430.3795 -0.430145434104 0.902759605609 0.0
683585.281338 247867.397118 427.8695 0.0 0.0 -1.0
683587.013 247873.957 427.8695 0.0 0.0 -1.0
683584.990667 247880.858 427.8695 0.0 0.0 -1.0
683577.013 247865.010799 427.8695 0.0 0.0 -1.0
683577.013 247873.957 427.8695 0.0 0.0 -1.0
683580.079812 247879.878122 427.8695 0.0 0.0 -1.0
683567.356583 247863.957 427.8695 0.0 0.0 -1.0
683567.013 247872.495731 427.8695 0.0 0.0 -1.0
683561.881 247870.760537 427.8695 0.0 0.0 -1.0
683585.281338 247867.397118 442.8895 -0.0 -0.0 1.0
683587.013 247873.957 442.8895 -0.0 -0.0 1.0
683584.990667 247880.858 442.8895 -0.0 -0.0 1.0
683577.013 247865.010799 442.8895 -0.0 -0.0 1.0
683577.013 247873.957 442.8895 -0.0 -0.0 1.0
683580.079812 247879.878122 442.8895 -0.0 -0.0 1.0
683567.356583 247863.957 442.8895 -0.0 -0.0 1.0
683567.013 247872.495731 442.8895 -0.0 -0.0 1.0
683561.881 247870.760537 442.8895 -0.0 -0.0 1.0
683511.499227 247878.696775 424.339314526 0.997972323461 0.0636493645317 0.0
683511.499227 247878.696775 415.339314526 0.997972323461 0.0636493645317 0.0
683512.13572 247868.717052 424.339314526 0.997972323461 0.0636493645317 0.0
683512.13572 247868.717052 415.339314526 0.997972323461 0.0636493645317 0.0
683512.534473 247862.464913 424.339314526 0.997972323461 0.0636493645317 0.0
683512.534473 247862.464913 415.339314526 0.997972323461 0.0636493645317 0.0
683507.614596 247860.892214 424.339314526 0.0599607014777 -0.998200738468 0.0
683507.614596 247860.892214 415.339314526 0.0599607014777 -0.998200738468 0.0
683501.072096 247860.499214 424.339314526 0.0599607014777 -0.998200738468 0.0
683501.072096 247860.499214 415.339314526 0.0599607014777 -0.998200738468 0.0
683499.188516 247865.40501 424.339314526 -0.997930552365 -0.0643009537718 0.0
683499.188516 247865.40501 415.339314526 -0.997930552365 -0.0643009537718 0.0
683498.807516 247871.31801 424.339314526 -0.997930552365 -0.0643009537718 0.0
683498.807516 247871.31801 415.339314526 -0.997930552365 -0.0643009537718 0.0
683497.717528 247872.177014 424.339314526 0.0527602268531 -0.998607209298 0.0
683497.717528 247872.177014 415.339314526 0.0527602268531 -0.998607209298 0.0
683496.344654 247877.121019 424.339314526 -0.997932334571 -0.0642732885171 0.0
683496.344654 247877.121019 415.339314526 -0.997932334571 -0.0642732885171 0.0
683496.003654 247882.415519 424.339314526 -0.997932334571 -0.0642732885171 0.0
683496.003654 247882.415519 415.339314526 -0.997932334571 -0.0642732885171 0.0
683500.983295 247883.048163 424.339314526 -0.0634366306597 0.997985868583 0.0
683500.983295 247883.048163 415.339314526 -0.0634366306597 0.997985868583 0.0
683508.526795 247883.527663 424.339314526 -0.0634366306597 0.997985868583 0.0
683508.526795 247883.527663 415.339314526 -0.0634366306597 0.997985868583 0.0
683511.125335 247883.692978 424.339314526 -0.0665190214885 0.997785157126 0.0
683511.125335 247883.692978 415.339314526 -0.0665190214885 0.997785157126 0.0
683502.434829 247865.416 411.329314526 -0.0 -0.0 -1.0
683501.068228 247875.416 411.329314526 -0.0 -0.0 -1.0
683500.994 247881.886323 411.329314526 -0.0 -0.0 -1.0
683509.2995 247865.610443 411.329314526 -0.0 -0.0 -1.0
683509.005672 247875.416 411.329314526 -0.0 -0.0 -1.0
683508.686778 247882.051 411.329314526 -0.0 -0.0 -1.0
683502.434829 247865.416 429.349314526 0.0 0.0 1.0
683501.068228 247875.416 429.349314526 0.0 0.0 1.0
683500.994 247881.886323 429.349314526 0.0 0.0 1.0
683509.2995 247865.610443 429.349314526 0.0 0.0 1.0
683509.005672 247875.416 429.349314526 0.0 0.0 1.0
683508.686778 247882.051 429.349314526 0.0 0.0 1.0
683496.325346 247877.731981 430.0 0.997932334571 0.0642732885171 0.0
683496.325346 247877.731981 420.0 0.997932334571 0.0642732885171 0.0
683496.325346 247877.731981 413.0 0.997932334571 0.0642732885171 0.0
683496.666346 247872.437481 430.0 0.997932334571 0.0642732885171 0.0
683496.666346 247872.437481 420.0 0.997932334571 0.0642732885171 0.0
683496.666346 247872.437481 413.0 0.997932334571 0.0642732885171 0.0
683495.404499 247872.058512 430.0 0.049859294157 -0.998756251938 0.0
683495.404499 247872.058512 420.0 0.049859294157 -0.998756251938 0.0
683495.404499 247872.058512 413.0 0.049859294157 -0.998756251938 0.0
683494.116527 247872.079269 430.0 -0.99732190803 -0.0731369384361 0.0
683494.116527 247872.079269 420.0 -0.99732190803 -0.0731369384361 0.0
683494.116527 247872.079269 413.0 -0.99732190803 -0.0731369384361 0.0
683493.492089 247872.076059 430.0 0.108872766761 -0.994055692936 0.0
683493.492089 247872.076059 420.0 0.108872766761 -0.994055692936 0.0
683493.492089 247872.076059 413.0 0.108872766761 -0.994055692936 0.0
683492.478944 247871.99001 430.0 0.0444006159944 -0.999013806361 0.0
683492.478944 247871.99001 420.0 0.0444006159944 -0.999013806361 0.0
683492.478944 247871.99001 413.0 0.0444006159944 -0.999013806361 0.0
683487.98332 247872.047002 430.0 -0.0179910088618 -0.999838148702 0.0
683487.98332 247872.047002 420.0 -0.0179910088618 -0.999838148702 0.0
683487.98332 247872.047002 413.0 -0.0179910088618 -0.999838148702 0.0
683483.296291 247872.133002 430.0 -0.020883173499 -0.999781922753 0.0
683483.296291 247872.133002 420.0 -0.020883173499 -0.999781922753 0.0
683483.296291 247872.133002 413.0 -0.020883173499 -0.999781922753 0.0
683482.693505 247872.721174 430.0 -0.999467197262 -0.032639264655 0.0
683482.693505 247872.721174 420.0 -0.999467197262 -0.032639264655 0.0
683482.693505 247872.721174 413.0 -0.999467197262 -0.032639264655 0.0
683482.845718 247873.294498 430.0 0.0218016680435 0.999762315388 0.0
683482.845718 247873.294498 420.0 0.0218016680435 0.999762315388 0.0
683482.845718 247873.294498 413.0 0.0218016680435 0.999762315388 0.0
683483.038001 247876.356637 430.0 -0.999906765559 0.0136550426219 0.0
683483.038001 247876.356637 420.0 -0.999906765559 0.0136550426219 0.0
683483.038001 247876.356637 413.0 -0.999906765559 0.0136550426219 0.0
683483.05 247879.422 430.0 0.0 -1.0 0.0
683483.05 247879.422 420.0 0.0 -1.0 0.0
683483.05 247879.422 413.0 0.0 -1.0 0.0
683482.929256 247879.469985 430.0 -0.52441199566 -0.851464655055 0.0
683482.929256 247879.469985 420.0 -0.52441199566 -0.851464655055 0.0
683482.929256 247879.469985 413.0 -0.52441199566 -0.851464655055 0.0
683482.853582 247879.561275 430.0 -0.99183577607 0.127521736605 0.0
683482.853582 247879.561275 420.0 -0.99183577607 0.127521736605 0.0
683482.853582 247879.561275 413.0 -0.99183577607 0.127521736605 0.0
683482.82976 247879.584003 430.0 0.02596527311 -0.99966284546 0.0
683482.82976 247879.584003 420.0 0.02596527311 -0.99966284546 0.0
683482.82976 247879.584003 413.0 0.02596527311 -0.99966284546 0.0
683482.800501 247880.804661 430.0 -0.999870488615 0.0160936632806 0.0
683482.800501 247880.804661 420.0 -0.999870488615 0.0160936632806 0.0
683482.800501 247880.804661 413.0 -0.999870488615 0.0160936632806 0.0
683482.8675 247882.026 430.0 -0.0 1.0 0.0
683482.8675 247882.026 420.0 -0.0 1.0 0.0
683482.8675 247882.026 413.0 -0.0 1.0 0.0
683482.896001 247882.080156 430.0 -0.999877951999 0.0156230952734 0.0
683482.896001 247882.080156 420.0 -0.999877951999 0.0156230952734 0.0
683482.896001 247882.080156 413.0 -0.999877951999 0.0156230952734 0.0
683482.985192 247882.152498 430.0 0.0192272293776 0.999815139739 0.0
683482.985192 247882.152498 420.0 0.0192272293776 0.999815139739 0.0
683482.985192 247882.152498 413.0 0.0192272293776 0.999815139739 0.0
683483.038028 247882.33975 430.0 -0.997185312819 -0.0749763422498 0.0
683483.038028 247882.33975 420.0 -0.997185312819 -0.0749763422498 0.0
683483.038028 247882.33975 413.0 -0.997185312819 -0.0749763422498 0.0
683483.1065 247882.55 430.0 -0.0 1.0 0.0
683483.1065 247882.55 420.0 -0.0 1.0 0.0
683483.1065 247882.55 413.0 -0.0 1.0 0.0
683486.40502 247882.5435 430.0 0.00201549982405 0.999997968878 0.0
683486.40502 247882.5435 420.0 0.00201549982405 0.999997968878 0.0
683486.40502 247882.5435 413.0 0.00201549982405 0.999997968878 0.0
683492.811695 247882.633995 430.0 -0.0304698185618 0.999535687285 0.0
683492.811695 247882.633995 420.0 -0.0304698185618 0.999535687285 0.0
683492.811695 247882.633995 413.0 -0.0304698185618 0.999535687285 0.0
683487.685 247876.983 410.99 -0.0 -0.0 -1.0
683487.757234 247882.301564 410.99 -0.0 -0.0 -1.0
683494.6805 247876.994 410.99 -0.0 -0.0 -1.0
683494.363266 247882.352 410.99 -0.0 -0.0 -1.0
683487.685 247876.983 435.01 0.0 0.0 1.0
683487.757234 247882.301564 435.01 0.0 0.0 1.0
683494.6805 247876.994 435.01 0.0 0.0 1.0
683494.363266 247882.352 435.01 0.0 0.0 1.0
683873.153497 247908.43113 465.0 0.949750031976 0.313009387657 0.0
683873.153497 247908.43113 457.5 0.949750031976 0.313009387657 0.0
683874.517871 247905.838796 465.0 -0.297900590338 0.954596898317 0.0
683874.517871 247905.838796 457.5 -0.297900590338 0.954596898317 0.0
683875.825371 247906.246796 465.0 -0.297868434091 0.954606932707 0.0
683875.825371 247906.246796 457.5 -0.297868434091 0.954606932707 0.0
683877.395428 247904.458833 465.0 0.94282830529 0.333278842328 0.0
683877.395428 247904.458833 457.5 0.94282830529 0.333278842328 0.0
683878.012285 247902.380265 465.0 0.22848559158 -0.973547294404 0.0
683878.012285 247902.380265 457.5 0.22848559158 -0.973547294404 0.0
683878.16223 247901.928836 465.0 0.878028107833 0.478609069968 0.0
683878.16223 247901.928836 457.5 0.878028107833 0.478609069968 0.0
683877.688087 247901.237055 465.0 0.313698864547 -0.949522523367 0.0
683877.688087 247901.237055 457.5 0.313698864547 -0.949522523367 0.0
683877.957505 247898.037606 465.0 0.950534302657 0.310619605742 0.0
683877.957505 247898.037606 457.5 0.950534302657 0.310619605742 0.0
683880.016008 247891.729098 465.0 0.95078834857 0.309841114483 0.0
683880.016008 247891.729098 457.5 0.95078834857 0.309841114483 0.0
683882.651993 247883.644577 465.0 0.950704852546 0.310097215959 0.0
683882.651993 247883.644577 457.5 0.950704852546 0.310097215959 0.0
683884.679993 247877.427077 465.0 0.950704852546 0.310097215959 0.0
683884.679993 247877.427077 457.5 0.950704852546 0.310097215959 0.0
683884.86315 247875.856593 465.0 0.310030333679 -0.950726665345 0.0
683884.86315 247875.856593 457.5 0.310030333679 -0.950726665345 0.0
683884.24515 247875.655092 465.0 0.30995550521 -0.950751063523 0.0
683884.24515 247875.655092 457.5 0.30995550521 -0.950751063523 0.0
683885.157003 247871.788113 465.0 0.950320592715 0.311272824161 0.0
683885.157003 247871.788113 457.5 0.950320592715 0.311272824161 0.0
683887.069503 247865.949613 465.0 0.950303163768 0.311326029962 0.0
683887.069503 247865.949613 457.5 0.950303163768 0.311326029962 0.0
683888.071036 247863.986461 465.0 -0.276360138231 0.961054147276 0.0
683888.071036 247863.986461 457.5 -0.276360138231 0.961054147276 0.0
683889.564536 247864.41596 465.0 -0.276383206959 0.961047513347 0.0
683889.564536 247864.41596 457.5 -0.276383206959 0.961047513347 0.0
683891.201237 247864.886611 465.0 -0.276307425138 0.961069303856 0.0
683891.201237 247864.886611 457.5 -0.276307425138 0.961069303856 0.0
683893.471944 247860.345594 465.0 0.934592720075 0.355719619338 0.0
683893.471944 247860.345594 457.5 0.934592720075 0.355719619338 0.0
683897.02914 247850.999666 465.0 0.934592720075 0.355719619338 0.0
683897.02914 247850.999666 457.5 0.934592720075 0.355719619338 0.0
683900.586336 247841.653739 465.0 0.934592720075 0.355719619338 0.0
683900.586336 247841.653739 457.5 0.934592720075 0.355719619338 0.0
683903.17264 247834.858666 465.0 0.934592720075 0.355719619338 0.0
683903.17264 247834.858666 457.5 0.934592720075 0.355719619338 0.0
683901.303681 247831.666202 465.0 0.368117416954 -0.929779311092 0.0
683901.303681 247831.666202 457.5 0.368117416954 -0.929779311092 0.0
683898.258652 247831.564448 465.0 -0.934783580637 -0.355217760495 0.0
683898.258652 247831.564448 457.5 -0.934783580637 -0.355217760495 0.0
683897.504795 247832.367058 465.0 0.329468703084 -0.944166496805 0.0
683897.504795 247832.367058 457.5 0.329468703084 -0.944166496805 0.0
683896.557795 247832.036559 465.0 0.329534821807 -0.944143421953 0.0
683896.557795 247832.036559 457.5 0.329534821807 -0.944143421953 0.0
683892.737795 247830.703558 465.0 0.329458732288 -0.944169976074 0.0
683892.737795 247830.703558 457.5 0.329458732288 -0.944169976074 0.0
683887.191244 247828.768358 465.0 0.329379492402 -0.944197622315 0.0
683887.191244 247828.768358 457.5 0.329379492402 -0.944197622315 0.0
683884.536744 247827.842358 465.0 0.329354426733 -0.944206365998 0.0
683884.536744 247827.842358 457.5 0.329354426733 -0.944206365998 0.0
683884.486978 247826.737688 465.0 0.947811498338 0.3188312463 0.0
683884.486978 247826.737688 457.5 0.947811498338 0.3188312463 0.0
683883.926557 247825.458479 465.0 0.305712985523 -0.952123715954 0.0
683883.926557 247825.458479 457.5 0.305712985523 -0.952123715954 0.0
683881.18606 247824.57798 465.0 0.305975971664 -0.952039234887 0.0
683881.18606 247824.57798 457.5 0.305975971664 -0.952039234887 0.0
683877.764767 247828.740687 465.0 -0.950558506741 -0.310545528487 0.0
683877.764767 247828.740687 457.5 -0.950558506741 -0.310545528487 0.0
683874.659311 247838.246272 465.0 -0.950558506741 -0.310545528487 0.0
683874.659311 247838.246272 457.5 -0.950558506741 -0.310545528487 0.0
683871.553856 247847.751857 465.0 -0.950558506741 -0.310545528487 0.0
683871.553856 247847.751857 457.5 -0.950558506741 -0.310545528487 0.0
683869.300811 247854.648272 465.0 -0.950558506741 -0.310545528487 0.0
683869.300811 247854.648272 457.5 -0.950558506741 -0.310545528487 0.0
683870.315764 247857.686437 465.0 -0.458556228088 0.888665395794 0.0
683870.315764 247857.686437 457.5 -0.458556228088 0.888665395794 0.0
683872.346765 247858.734437 465.0 -0.458540550323 0.888673485432 0.0
683872.346765 247858.734437 457.5 -0.458540550323 0.888673485432 0.0
683871.859478 247861.391446 465.0 -0.952216360162 -0.305424300669 0.0
683871.859478 247861.391446 457.5 -0.952216360162 -0.305424300669 0.0
683870.971978 247864.158446 465.0 -0.952235145465 -0.305365727844 0.0
683870.971978 247864.158446 457.5 -0.952235145465 -0.305365727844 0.0
683870.566923 247864.307884 465.0 0.307344931559 -0.951598178353 0.0
683870.566923 247864.307884 457.5 0.307344931559 -0.951598178353 0.0
683870.198419 247864.188883 465.0 0.306924139097 -0.951733982182 0.0
683870.198419 247864.188883 457.5 0.306924139097 -0.951733982182 0.0
683869.410704 247864.086073 465.0 0.120370870722 -0.992728992969 0.0
683869.410704 247864.086073 457.5 0.120370870722 -0.992728992969 0.0
683868.686938 247863.845615 465.0 0.993769949355 0.11145083113 0.0
683868.686938 247863.845615 457.5 0.993769949355 0.11145083113 0.0
683868.233415 247863.631542 465.0 0.0915063596069 -0.995804491932 0.0
683868.233415 247863.631542 457.5 0.0915063596069 -0.995804491932 0.0
683867.64397 247863.962471 465.0 -0.953011118281 -0.302935320544 0.0
683867.64397 247863.962471 457.5 -0.953011118281 -0.302935320544 0.0
683866.819972 247866.550465 465.0 -0.952844065751 -0.303460353859 0.0
683866.819972 247866.550465 457.5 -0.952844065751 -0.303460353859 0.0
683866.510492 247868.982426 465.0 -0.450843911228 0.89260280512 0.0
683866.510492 247868.982426 457.5 -0.450843911228 0.89260280512 0.0
683867.010274 247869.005798 465.0 0.877404888966 0.479750623573 0.0
683867.010274 247869.005798 457.5 0.877404888966 0.479750623573 0.0
683867.760226 247869.207809 465.0 -0.48244307291 0.875927326552 0.0
683867.760226 247869.207809 457.5 -0.48244307291 0.875927326552 0.0
683868.47473 247869.601312 465.0 -0.481956562203 0.876195110777 0.0
683868.47473 247869.601312 457.5 -0.481956562203 0.876195110777 0.0
683869.00721 247869.795943 465.0 -0.329009938847 0.944326458456 0.0
683869.00721 247869.795943 457.5 -0.329009938847 0.944326458456 0.0
683869.425743 247870.142148 465.0 -0.950673495317 -0.310193335361 0.0
683869.425743 247870.142148 457.5 -0.950673495317 -0.310193335361 0.0
683867.813143 247875.084804 465.0 -0.950681077557 -0.31017009652 0.0
683867.813143 247875.084804 457.5 -0.950681077557 -0.31017009652 0.0
683864.745393 247884.487554 465.0 -0.950681077557 -0.31017009652 0.0
683864.745393 247884.487554 457.5 -0.950681077557 -0.31017009652 0.0
683863.081493 247889.587398 465.0 -0.95066897346 -0.310207193502 0.0
683863.081493 247889.587398 457.5 -0.95066897346 -0.310207193502 0.0
683861.908993 247893.181399 465.0 -0.95069010624 -0.310142421957 0.0
683861.908993 247893.181399 457.5 -0.95069010624 -0.310142421957 0.0
683860.08899 247898.769409 465.0 -0.951029780184 -0.309099267557 0.0
683860.08899 247898.769409 457.5 -0.951029780184 -0.309099267557 0.0
683857.749444 247905.969205 465.0 -0.951059108747 -0.309009015514 0.0
683857.749444 247905.969205 457.5 -0.951059108747 -0.309009015514 0.0
683854.659354 247915.479797 465.0 -0.951059108747 -0.309009015514 0.0
683854.659354 247915.479797 457.5 -0.951059108747 -0.309009015514 0.0
683851.851899 247924.120501 465.0 -0.951059108747 -0.309009015514 0.0
683851.851899 247924.120501 457.5 -0.951059108747 -0.309009015514 0.0
683853.007754 247929.319302 465.0 -0.474643421213 0.880178176678 0.0
683853.007754 247929.319302 457.5 -0.474643421213 0.880178176678 0.0
683855.041069 247931.673675 465.0 -0.943096550102 -0.33251901778 0.0
683855.041069 247931.673675 457.5 -0.943096550102 -0.33251901778 0.0
683859.432387 247934.280625 465.0 -0.305820793892 0.952089093532 0.0
683859.432387 247934.280625 457.5 -0.305820793892 0.952089093532 0.0
683864.340387 247935.857125 465.0 -0.305820793892 0.952089093532 0.0
